# .PCD v0.7 - Point Cloud Data file format
VERSION 0.7
FIELDS x y z intensity normal_x normal_y normal_z curvature
SIZE 4 4 4 4 4 4 4 4
TYPE F F F F F F F F
COUNT 1 1 1 1 1 1 1 1
WIDTH 664
HEIGHT 1
VIEWPOINT 0 0 0 1 0 0 0
POINTS 664
DATA ascii
-0.72453833 -0.73537374 2.948 0 0.004440933 -0.99934971 0.035785612 0
-0.32838318 -0.83689672 3.3574996 0 0.4220278 0.88755041 0.18478896 0
-1.0279496 -0.60497618 2.5231647 0 0.97664398 0.0098463697 -0.21463819 0
-1.2666345 -0.547355 2.2322342 0 0.24096072 -0.081753813 0.96708548 0
-1.0203934 -0.65827602 2.5666668 0 0.9794206 -0.039545681 -0.1979178 0
-1.15502 -0.60522681 2.2080362 0 0.15558942 -0.051256865 0.98649114 0
-0.11671504 -0.88235593 3.0909383 0 0.039626095 0.022792587 -0.99895459 0
-0.81259108 -0.9038614 3.0358236 0 0.69878143 0.30573991 -0.64670527 0
-1.2105638 -0.65925652 2.2129514 0 0.23452444 -0.076870069 0.96906626 0
-0.59554881 -0.88202202 2.7994542 0 -0.27786863 -0.57674259 0.76821685 0
-0.94121671 -0.93381315 2.9731429 0 0.96607 -0.032554179 -0.25622079 0
-1.0855165 -0.71518576 2.2513013 0 0.96209848 -0.0038656464 -0.27267471 0
-0.92460942 -0.99129379 3.0200353 0 0.88842434 -0.39389598 -0.23568696 0
-1.1043242 -0.76973921 2.1995924 0 -0.017015459 -0.0073205745 0.99982852 0
-1.0663214 -0.82726759 2.3230171 0 0.99125051 0.023562312 -0.12987459 0
-0.95636523 -1.0450119 2.8561752 0 0.97767085 0.054002602 -0.20308475 0
-1.0598359 -0.87863678 2.3663216 0 0.9706558 0.022087986 -0.23945695 0
-0.94906247 -1.0998758 2.9158127 0 0.98001552 0.044633698 -0.19384927 0
-1.0749866 -0.87051934 2.2983334 0 0.9914332 0.029445348 -0.12725309 0
-0.97170985 -1.1547221 2.8061666 0 0.97381335 0.016158529 -0.22677444 0
-0.95676994 -1.1979696 2.8306923 0 0.98159742 0.013556195 -0.19048055 0
0.9375304 0.79212379 2.2002809 0 0.0089378431 -0.99956256 -0.028196037 0
0.88186002 0.78630096 2.251533 0 0.011530093 -0.99695426 -0.077132516 0
1.0430865 0.78334171 2.3107195 0 0.023380114 -0.998303 -0.053334877 0
0.99066132 0.78044844 2.364723 0 0.010237618 -0.99882513 -0.04736701 0
1.1553105 0.77905542 2.4183273 0 0.0098545365 -0.99844444 -0.054877624 0
1.0987997 0.77467412 2.4759684 0 0.0020350581 -0.99901623 -0.044299785 0
1.2695361 0.77056092 2.5317693 0 0.0022861259 -0.99967206 -0.025508264 0
1.2104665 0.77251911 2.5882888 0 0.013001014 -0.99906838 -0.041151054 0
0.49731654 0.76666111 2.6365907 0 -0.0068878802 0.99830979 0.05770842 0
0.43986526 0.75853664 2.6940176 0 0.056947045 -0.14935018 -0.98714316 0
0.60787463 0.75444818 2.7431219 0 0.054427311 0.56210208 -0.82527506 0
0.54966867 0.75440961 2.8095479 0 -0.017610103 -0.99937141 -0.030770846 0
0.78307098 0.74060643 2.8618 0 -0.020960614 -0.99882001 -0.043809935 0
0.64634401 0.74888015 2.9072628 0 -0.012539834 -0.99618816 -0.086324818 0
0.81334656 0.74174094 2.9181664 0 0.02476039 -0.99965167 0.0091372533 0
0.83585519 0.74369013 2.9614 0 -0.015351221 0.99902302 0.041442372 0
0.79510307 0.74983478 3.0127499 0 -0.00056106271 -0.9999373 -0.011187794 0
0.64058697 0.74075937 2.9811432 0 0.0019763445 -0.99992061 0.012441647 0
0.69074368 0.74167353 3.0369999 0 0.020310143 -0.99556834 -0.091822252 0
0.55605751 0.63776273 2.7002499 0 -0.096994385 0.12944117 -0.9868319 0
0.11921307 0.73580414 3.08776 0 -0.087614447 0.99492806 0.049416035 0
0.16569859 0.7305637 3.1482694 0 -0.033760421 0.99786508 0.055907853 0
0.70011884 0.61017573 2.6742358 0 0.018425362 -0.16520272 0.9860875 0
0.66573811 0.58985394 2.6660314 0 -0.023287453 -0.09591198 0.99511737 0
0.64852411 0.5743379 2.6684999 0 0.40046465 -0.11569871 0.90897858 0
0.8759439 0.36026692 1.7572564 0 0.011172783 0.99788761 0.063995674 0
0.69466162 0.55226642 2.6486666 0 0.11710202 -0.024541862 0.99281669 0
0.92206526 0.35810053 1.8050001 0 0.046363398 0.99747354 0.053825311 0
0.87566775 0.35486937 1.8279486 0 0.059865389 0.99667639 0.055248901 0
0.98303092 0.34755072 1.9248996 0 -0.076034389 0.98285592 0.16796774 0
0.14769752 0.39061984 2.7815254 0 -0.34361118 -0.078451067 -0.93582952 0
0.17051636 0.33104619 2.7651005 0 0.39007992 0.1046626 0.9148134 0
0.10992564 0.33126494 2.7854464 0 0.12851942 0.054559536 0.99020505 0
0.39510521 0.27736798 2.9028332 0 0.001935292 -0.99619156 -0.087170169 0
0.33464077 0.2740632 2.8543336 0 0.021156013 0.97614509 0.21608648 0
0.22542727 0.27435276 2.9680831 0 -0.020308187 0.99838698 0.053019561 0
0.055280712 0.27426428 2.7884533 0 -0.092034817 -0.069701068 -0.99331331 0
0.27752846 0.27069855 3.01615 0 -0.034476768 0.9968487 0.07144247 0
0.55767947 0.26430181 3.0848334 0 0.034663357 0.98974019 0.13861054 0
0.60898548 0.25489321 3.1108124 0 -0.15519416 -0.56477886 -0.81051821 0
0.43111023 0.25342229 3.1815386 0 -0.16895264 -0.2984159 -0.93936306 0
0.00099814788 0.21940187 2.7923999 0 0.089374341 0.049471684 0.99476874 0
0.55261123 0.21985656 3.1295476 0 -0.19237377 -0.42075595 -0.88654202 0
0.48721209 0.21589206 3.181016 0 -0.26336819 -0.34557885 -0.90067333 0
0.13219982 0.15864921 2.9617372 0 0.92118078 -0.251647 -0.29681638 0
0.66586477 0.16753931 3.0832703 0 -0.73870444 -0.65065289 0.17597358 0
0.15279932 0.16223568 3.0192728 0 0.88975245 -0.29624587 -0.34724507 0
0.13762273 0.13199374 2.9909999 0 0.91302162 -0.31908098 -0.25412393 0
0.071315713 0.10892933 2.847857 0 0.68419081 -0.60367352 -0.40922037 0
0.71734804 0.10407087 3.0794735 0 -0.69884282 -0.71384722 -0.045177061 0
0.11594118 0.10158904 3.0251174 0 0.74168968 -0.62299371 -0.24854626 0
0.79595709 0.094329536 3.2336667 0 0.9160437 -0.06311857 -0.39608085 0
0.66080481 0.11331557 3.1506195 0 0.23495978 0.9609462 0.14620678 0
0.65956223 0.056397218 3.1801779 0 -0.15224439 -0.33834261 -0.92862588 0
0.71522397 -0.00091432413 3.1996479 0 -0.16392072 -0.389238 -0.90643466 0
-0.88199055 -0.097259633 3.1298518 0 0.438752 0.88815272 -0.13668044 0
-0.82980126 -0.12085592 3.069886 0 0.055600159 -0.90555179 -0.42057651 0
-0.76847118 -0.16567858 3.0776756 0 0.054292075 -0.16204113 0.98528934 0
-0.48537663 -0.31287783 3.1719413 0 -0.58577126 0.23997222 0.77413523 0
-0.58396804 -0.32118756 3.08675 0 0.36923343 -0.068116389 0.92683697 0
-0.54910946 -0.37064457 3.09375 0 -0.24498895 0.54023254 0.8050648 0
-0.49171185 -0.38346758 3.1271482 0 -0.12007315 0.025968939 0.99242532 0
-0.55580837 -0.4192462 3.1313 0 0.09666191 0.12231777 -0.98777276 0
-0.64251274 -0.45442453 3.2415712 0 0.95266473 0.25780219 0.16114603 0
-0.6058045 -0.44421548 3.1785002 0 -0.5247128 -0.71926475 -0.45534039 0
-0.050187271 -0.50496763 3.470361 0 0.057596508 -0.040828459 0.99750483 0
-0.23433332 -0.51438504 3.2871425 0 0.96042508 0.025712259 -0.27734947 0
-0.27352604 -0.50423735 3.2297444 0 -0.55089277 -0.64370996 0.53118229 0
-0.21213493 -0.53419083 3.3452499 0 0.94485581 0.32195416 0.059941463 0
-0.33265075 -0.49850792 3.2022388 0 0.42128026 0.21435462 -0.881235 0
-0.087042682 -0.5513503 3.4728749 0 0.25286999 -0.017983817 0.9673332 0
-0.45043489 -0.51982152 3.0979998 0 -0.66934097 -0.19425203 0.71711147 0
-0.15342918 -0.592035 3.4755001 0 -0.027225571 0.61477971 -0.78822887 0
-0.17075771 -0.56531554 3.2917776 0 0.74265313 0.14993034 0.65267694 0
-0.27202851 -0.55314881 3.2035453 0 0.29738107 0.10224006 -0.94926894 0
-0.31540197 -0.56458569 3.2249446 0 0.26589572 -0.092561282 -0.95954776 0
-0.13266923 -0.60057366 3.3145003 0 0.91125023 0.36841229 0.18410741 0
-0.45979643 -0.55976218 3.1117001 0 -0.5771758 -0.041873083 0.81554574 0
-0.16717474 -0.65005541 3.4283333 0 0.011538775 0.10154232 -0.99476433 0
-0.21517716 -0.67856026 3.468154 0 0.059105631 -0.13122809 0.98958862 0
-0.051788598 -0.6556434 3.2953751 0 -0.027989525 0.91325861 0.40641773 0
-0.27384254 -0.71929419 3.4530001 0 -0.22093949 -0.038680673 -0.97452021 0
-1.0448399 -0.49261367 2.4808295 0 0.98316252 -0.0011094983 -0.18272996 0
-0.39227587 -0.72526902 3.3610001 0 -0.047086343 0.95105368 0.30541742 0
-1.011592 -0.54740727 2.5860183 0 0.98042351 -0.0067642881 -0.19678414 0
-0.27743682 -0.77346563 3.4048331 0 0.47128522 -0.86743963 0.15949574 0
-0.33641464 -0.78780812 3.4836154 0 0.011491307 -0.82662016 0.56264305 0
-1.262697 -0.49375066 2.2382121 0 0.25913209 -0.085803568 0.96202308 0
-1.0531406 -0.54999578 2.4209456 0 0.97902387 0.011211697 -0.20343733 0
-0.37856907 -0.82659197 3.465857 0 -0.67161727 -0.74057531 -0.021876097 0
-0.40149802 -0.78949356 3.3076248 0 0.48977989 0.87120736 0.0333689 0
-1.0200542 -0.61032259 2.5646253 0 0.98448026 0.0061344947 -0.17538816 0
-0.75539571 -0.75899953 3.0503333 0 -0.19907969 -0.97990978 -0.012009123 0
-0.32790926 -0.83204728 3.3205998 0 0.31528369 0.93085557 0.18467295 0
-1.253742 -0.56024563 2.2230253 0 0.20704825 -0.080634415 0.97500211 0
-1.316201 -0.55005628 2.2464266 0 0.3176944 -0.087568358 0.94414091 0
-1.0276757 -0.65926528 2.5266025 0 0.97695321 -0.060865872 -0.20459184 0
-0.11966942 -0.86332327 3.1141429 0 -0.045561206 0.17609043 -0.98331904 0
-0.5704903 -0.78705668 2.82675 0 -0.55663466 -0.70978647 0.43169558 0
-1.2100066 -0.60523045 2.2136514 0 0.19345029 -0.069809064 0.97862333 0
-0.59234697 -0.80245382 2.8211429 0 -0.57766926 -0.61085927 0.54143256 0
-0.49171436 -0.84670269 2.7129998 0 -0.18967807 0.9186843 -0.34646976 0
-1.1549987 -0.65996343 2.2000756 0 0.17871936 -0.052605398 0.98249286 0
-0.92142367 -0.93466848 3.0114324 0 -0.25339517 0.96602422 -0.050874405 0
-0.5840975 -0.89141113 2.7511666 0 0.57286316 0.061419748 0.81734663 0
-0.55593365 -0.90293282 2.7168334 0 0.51717246 -0.61506993 0.59516531 0
-1.1051143 -0.71366113 2.2004528 0 -0.11278328 -0.056013882 0.99203956 0
-0.9440155 -0.990219 2.9742503 0 0.97932613 -0.042409405 -0.19779269 0
-1.0855786 -0.77039516 2.2533612 0 0.91083473 0.0098995576 -0.41265249 0
-1.058684 -0.82523948 2.3674951 0 0.98050046 0.019505888 -0.19554655 0
-0.96471882 -1.0309397 2.8433332 0 0.99251372 0.042475808 -0.11451009 0
-0.94401062 -1.0476284 2.9156141 0 0.97848511 0.099178053 -0.18091625 0
-1.0752743 -0.82520366 2.3015363 0 0.97709936 0.036538593 -0.20962289 0
-0.9631176 -1.1039841 2.9026 0 0.98445344 0.0048355386 -0.17557949 0
-1.0660764 -0.88069326 2.3083999 0 0.99215209 0.00094713771 -0.12503351 0
-0.95558906 -1.1057134 2.8510854 0 0.99791712 0.038044136 -0.052097708 0
-0.95855492 -1.1532172 2.8292634 0 0.98141032 0.010899141 -0.19161187 0
-0.96803057 -1.193719 2.8097997 0 0.96857804 0.022800924 -0.24766243 0
-0.97810471 -1.1550409 2.7441692 0 0.97766757 0.015101698 -0.20961434 0
0.98860723 0.79028893 2.2014825 0 0.0066518574 -0.99038315 -0.13819239 0
1.0456562 0.78749198 2.2593451 0 0.011005106 -0.99765933 -0.067489587 0
0.88112324 0.78084588 2.3076153 0 0.0035848455 -0.99872667 -0.050322767 0
0.93446988 0.77946985 2.3620386 0 0.014013306 -0.99897939 -0.042941689 0
1.2127509 0.77700686 2.4198599 0 -0.00083748484 -0.99959916 -0.028297592 0
1.2607206 0.77231252 2.4767742 0 -0.010631635 -0.99979496 -0.017234717 0
1.0984874 0.76867825 2.5292389 0 0.0074228956 -0.99894953 -0.045220256 0
1.1556412 0.76825839 2.5846727 0 0.01570102 -0.99848199 -0.052793533 0
0.54933268 0.76345265 2.6372969 0 -0.0068719508 0.99843025 0.05558769 0
0.6092667 0.76067621 2.6979766 0 -0.050209265 -0.99735045 -0.052641626 0
1.2825484 0.71302104 2.5441504 0 0.1614075 0.98506045 0.060030326 0
0.43743721 0.75609857 2.7569668 0 -0.015913624 -0.99097246 -0.13311771 0
0.49163446 0.75070035 2.8063805 0 0.0017657316 -0.99995488 -0.0093368841 0
0.77553821 0.74493635 2.8501761 0 0.0097927609 -0.99972665 0.021229628 0
0.84098262 0.74577457 2.9161665 0 -0.037147086 0.99868083 -0.035452157 0
0.63034624 0.70441991 2.7376997 0 0.158334 0.76863289 -0.61978543 0
0.65186471 0.73787999 2.9216924 0 0.0066748355 -0.99997771 0.00011225337 0
0.81541651 0.73943526 2.9694288 0 -0.0017913021 -0.99947512 -0.032346062 0
0.66219097 0.74583775 2.9887145 0 -0.001434615 -0.99839354 -0.056642998 0
0.12390336 0.74321645 3.0667999 0 -0.037036136 0.99918908 0.015801383 0
0.49662012 0.63565648 2.7064998 0 -0.076488547 0.13198175 -0.98829675 0
0.16514595 0.72456539 3.1761336 0 0.025291571 0.99404699 0.1059763 0
0.88503176 0.34923136 1.8535348 0 0.058007568 0.99632066 0.063090727 0
0.94127858 0.34424359 1.8996925 0 -0.0149992 0.99522316 0.096466884 0
0.694592 0.49750119 2.6566298 0 0.19953568 -0.062967695 0.97786534 0
0.63271582 0.46766746 2.6719999 0 0.22523187 -0.017464478 0.97414863 0
0.70080829 0.43502748 2.6735837 0 0.21907386 -0.036656514 0.97501945 0
0.65971893 0.43992716 2.6578016 0 0.23220301 -0.029184848 0.97222942 0
0.0051573338 0.38553691 2.8072221 0 0.24497613 -0.046035171 0.96843559 0
0.054575615 0.32961273 2.7849278 0 0.16635211 0.0020189527 0.98606437 0
0.18118574 0.29867387 2.773 0 -0.052768979 -0.251874 -0.96632034 0
0.27349788 0.28088456 2.8611999 0 0.042624213 -0.99273515 -0.11251709 0
0.21965897 0.27714664 2.9291 0 0.035157014 -0.99752098 -0.06095811 0
0.4019663 0.27412677 2.9706252 0 -0.012631662 -0.99791849 -0.063238703 0
0.31950104 0.27387393 3.0138183 0 -0.088489406 0.99264556 0.082609914 0
0.10374058 0.2803705 2.8034449 0 0.28058496 -0.39178342 -0.87622935 0
0.49671119 0.26814938 3.0807996 0 -0.076969743 -0.98468882 -0.15640889 0
0.44195822 0.2584511 3.158 0 -0.13077122 -0.93299472 -0.33529064 0
0.51094639 0.22524808 3.1425717 0 -0.39884377 -0.50546283 -0.76513469 0
0.52993387 0.19729504 3.1671429 0 -0.28638279 -0.44884816 -0.84647518 0
0.12152643 0.16423035 2.9154212 0 0.86789334 -0.43736437 -0.23552841 0
0.088492312 0.1290388 2.8639166 0 0.18868761 -0.95084405 -0.24554554 0
0.74397689 0.096009232 3.0929999 0 -0.60652429 -0.78825295 -0.10385428 0
0.65117413 0.10227525 3.1733336 0 -0.29482785 -0.24175398 -0.92446285 0
0.68321276 0.068537161 3.1598001 0 -0.17674226 -0.4962593 -0.84999347 0
0.79334855 0.052755442 3.2338126 0 0.81654954 -0.18244396 -0.54768711 0
0.80359423 0.0014434856 3.2601814 0 0.86692733 -0.0057682241 -0.49840117 0
0.75827146 0.00024701955 3.1978269 0 -0.1179168 -0.3456552 -0.93092334 0
0.44035432 -0.018973669 3.2834482 0 -0.14826797 -0.58384836 -0.79820913 0
-0.88717002 -0.059620939 3.2394655 0 0.95758897 0.22555563 -0.17929886 0
-0.88690186 -0.0897476 3.1907859 0 0.90673524 0.41618493 -0.067979746 0
-0.76522428 -0.12641074 3.0869668 0 -0.16833852 -0.94633085 -0.27589878 0
-0.81372225 -0.14814155 3.0674286 0 0.14941727 -0.20794795 -0.96666038 0
-0.88659334 -0.22985916 3.0887272 0 -0.0089072511 0.11637707 0.99316519 0
-0.66320062 -0.29804605 3.2265 0 0.99802577 0.031951044 0.054071456 0
-0.66719675 -0.30313694 3.2165 0 0.99802577 0.031951044 0.054071456 0
-0.49964237 -0.27696091 3.0703683 0 0.98964149 -0.008634516 -0.14330171 0
-0.68753546 -0.34807578 3.3599999 0 0.98154259 -0.017220406 0.19046676 0
-0.49640241 -0.33532193 3.1310413 0 -0.3010864 0.00021435833 0.95359689 0
-0.55236506 -0.33475217 3.0921264 0 0.17102131 -0.26291046 -0.94954193 0
-0.62432355 -0.3884621 3.0744998 0 -0.40807116 0.81534368 0.41072226 0
-0.63776648 -0.41658449 3.0941999 0 -0.27702656 0.88845581 0.36592704 0
-1.3479288 -0.30950844 2.2704999 0 0.21042396 -0.046291981 0.97651362 0
-0.54735845 -0.44539586 3.1892073 0 0.15061539 0.12930763 0.98009926 0
-0.59662765 -0.43958393 3.1441576 0 -0.065939188 -0.51890832 -0.852283 0
-0.41654596 -0.49182299 3.2244999 0 0.24550718 0.04705251 -0.96825224 0
-0.21290433 -0.54422969 3.408 0 0.97614843 0.19189405 -0.10154253 0
-0.37961149 -0.48826319 3.1965356 0 0.031331096 -0.066056088 -0.99732399 0
-0.37794533 -0.52842051 3.221 0 0.21770433 -0.065717325 -0.97379982 0
-0.66360611 -0.51188284 3.0393333 0 0.94383103 -0.27735019 -0.1796106 0
-0.30727214 -0.58179241 3.2275 0 0.28316599 -0.14136785 -0.94859481 0
-0.11001182 -0.60995007 3.4749994 0 -0.0078526735 0.47577706 -0.87953085 0
-0.13379091 -0.63934231 3.4225001 0 -0.010411909 0.082809843 -0.99651104 0
-0.1456192 -0.59587878 3.2898667 0 -0.42413104 0.11666563 -0.89805466 0
-0.052590337 -0.64588118 3.4630008 0 0.13486512 0.12391544 -0.98308516 0
-0.17000294 -0.63694733 3.3593333 0 0.70943153 -0.067463145 0.70153803 0
-0.45933196 -0.58485931 3.1152856 0 -0.53821313 -0.06781178 0.84007633 0
-1.0311426 -0.49778956 2.5296099 0 0.97393334 0.063496299 -0.21776608 0
-0.26075143 -0.68015581 3.2256362 0 0.1743366 -0.11104295 -0.978405 0
-0.30716553 -0.68347353 3.1949999 0 -0.214433 0.063922107 0.97464484 0
-0.22529447 -0.69319397 3.249917 0 0.84889722 -0.1156774 -0.51574445 0
-0.40662608 -0.73994267 3.4289999 0 -0.0083784312 0.9631601 -0.26879838 0
-0.40693265 -0.68328559 3.1125 0 -0.70428169 -0.010940894 0.7098363 0
-0.43382177 -0.66097027 3.0946817 0 0.21991421 -0.043784183 0.97453612 0
-0.25840354 -0.75535613 3.3643332 0 0.070668995 -0.15868834 -0.98479646 0
-0.25926873 -0.72959077 3.2953331 0 0.023991227 0.99137229 -0.12886208 0
-1.0212057 -0.55632526 2.5665188 0 0.98323065 0.032377683 -0.17946941 0
-0.36106777 -0.7877562 3.4844999 0 0.37200958 0.91206121 -0.17249109 0
-1.2230229 -0.49673542 2.2311833 0 -0.028832179 -0.021694733 0.99934888 0
-1.1537083 -0.49419031 2.2101548 0 0.14412986 -0.053674992 0.98810208 0
-0.90514767 -0.73975968 3.0455 0 -0.036945261 0.36495155 -0.9302932 0
-0.32749692 -0.84178495 3.4801245 0 0.3009299 0.91812223 -0.25786194 0
-1.0129308 -0.60539681 2.588882 0 0.98260379 0.0089303479 -0.18549985 0
-0.37653109 -0.81175715 3.3100832 0 0.34761566 0.93686152 0.03813035 0
-0.3032096 -0.85950851 3.4200001 0 -0.070256397 0.0030099568 -0.99752444 0
-0.26876551 -0.87237716 3.4712496 0 -0.25883403 0.006028194 0.96590298 0
-0.70054674 -0.73368937 2.8556468 0 -0.48144764 -0.8753621 -0.044152491 0
-1.2048334 -0.55496067 2.2170396 0 0.20542268 -0.062966675 0.97664565 0
-1.0497273 -0.6064201 2.4195435 0 0.98309457 0.014679452 -0.18250901 0
-0.2289629 -0.8308773 3.1235709 0 -0.013421814 -0.9998247 -0.013057455 0
-0.17474243 -0.84316653 3.0950713 0 -0.015533861 0.33184654 -0.94320548 0
-0.14421277 -0.8553347 3.1173334 0 -0.26388422 -0.47196874 -0.84119594 0
-1.0410408 -0.65981829 2.4751291 0 0.97904915 -0.0030796051 -0.20360082 0
-1.3157767 -0.60586745 2.2443328 0 0.28511447 -0.079500034 0.9551909 0
-1.2566454 -0.60123509 2.2228456 0 0.21211359 -0.076652959 0.97423422 0
-0.61167067 -0.77153361 2.8103456 0 -0.49071047 -0.80250758 0.33938923 0
-0.21748413 -0.86631912 3.1050489 0 -0.016541164 0.12480216 -0.99204373 0
-0.65700072 -0.7732625 2.7489748 0 -0.70228976 -0.7113241 -0.028412327 0
-1.0741092 -0.69441336 2.3593333 0 0.99020833 -0.01129549 -0.13914026 0
-0.546471 -0.84124327 2.8256247 0 -0.23769453 -0.66944051 -0.70381165 0
-1.2740784 -0.64579695 2.2339644 0 0.25969282 -0.073024027 0.96292639 0
-0.50190175 -0.84852237 2.727 0 -0.4642463 -0.86948717 0.1687229 0
-0.51118588 -0.85911566 2.8050001 0 0.57671416 -0.61957806 0.53246963 0
-1.0675874 -0.71604502 2.3200908 0 0.9884969 0.012043514 -0.15076116 0
-0.5521065 -0.88527179 2.7441952 0 0.64402461 0.24929199 0.72324669 0
-0.95888561 -0.93531972 2.8620546 0 0.9850558 0.01267631 -0.17176816 0
-1.0612847 -0.77038038 2.3681209 0 0.97750908 0.014618352 -0.21038637 0
-0.96651793 -0.97156245 2.8329999 0 0.97705418 0.045086943 -0.20816419 0
-1.0792292 -0.77202636 2.3077648 0 0.99526167 0.01811243 -0.095531195 0
-0.94591731 -0.98853731 2.9116871 0 0.98580652 -0.049071047 -0.16055402 0
-0.93314821 -1.0416254 2.9778361 0 0.97725421 0.042492833 -0.20777079 0
-0.91882396 -1.1008157 3.0244231 0 0.97638118 0.075788833 -0.20232628 0
-1.0804018 -0.82353657 2.2538884 0 0.96315378 0.036284298 -0.26649266 0
-1.0691518 -0.87626302 2.2729089 0 0.98378533 0.015313965 -0.17869502 0
-1.1012 -0.87973136 2.1913586 0 -0.04659998 -0.02249917 0.99866027 0
-0.99259508 -1.1438737 2.6965683 0 0.98048574 0.019886781 -0.19558196 0
0.96255577 0.7975257 2.2030001 0 0.010829852 -0.99970442 -0.021769341 0
1.0453323 0.79152977 2.2025771 0 0.006918374 -0.99904412 -0.043164499 0
0.98900568 0.78554106 2.2535484 0 0.01247289 -0.99764186 -0.06749218 0
0.93660408 0.78213465 2.3094285 0 0.0087536918 -0.99877352 -0.048733164 0
0.88018948 0.77723569 2.361907 0 0.013819568 -0.99859416 -0.051174611 0
1.2495352 0.77499205 2.4267306 0 0.00071006315 -0.99938178 -0.035152238 0
1.2119366 0.77623808 2.4779484 0 0.0015474623 -0.99880099 -0.048931748 0
1.1546475 0.77125329 2.5345681 0 -0.00025485596 -0.99838591 -0.056794044 0
1.1086112 0.76981139 2.586 0 0.021695586 -0.99859124 -0.048424631 0
0.60419548 0.7625919 2.640429 0 0.0035409564 -0.9987725 -0.049407244 0
0.54649657 0.75741649 2.6963489 0 -0.056130107 0.060925014 -0.9965629 0
0.49723256 0.75483346 2.751133 0 -0.060793635 -0.99813616 -0.0053289533 0
1.2743764 0.71867949 2.5717666 0 0.6272344 0.77882886 0.0016236156 0
0.44034705 0.74970537 2.7995007 0 0.027177494 -0.9986853 -0.043464687 0
0.82948363 0.74721646 2.8543663 0 -0.017737625 0.99943185 0.028659828 0
0.77625781 0.74522597 2.9105003 0 -0.0048887101 -0.99971735 -0.023270026 0
0.79006124 0.74023277 2.9483335 0 -0.0030905348 0.9995833 0.028701566 0
0.62603611 0.67990088 2.7256 0 0.089619882 -0.36905822 0.92507535 0
0.67464429 0.74486834 3.0116665 0 0.0050551742 -0.9977054 -0.067515403 0
0.82394397 0.73757231 3.0136666 0 0.013491527 -0.99965876 -0.022367723 0
0.16111556 0.74290144 3.0655 0 0.028412424 0.99944401 0.017447175 0
0.43972647 0.63329333 2.7072499 0 -0.1389077 0.16904223 -0.97577119 0
0.11530501 0.72551072 3.1830587 0 0.019528979 0.99487013 0.099257663 0
0.90341377 0.35768005 1.8463334 0 0.056283798 0.99636841 0.063892722 0
0.93037075 0.35050458 1.8767999 0 -0.015001049 0.99522305 0.096467815 0
0.65997601 0.49628776 2.65346 0 0.19212149 -0.023988038 0.98107791 0
0.70657033 0.48359773 2.6772499 0 0.21164417 -0.055523165 0.97576845 0
0.69891077 0.44856653 2.6610909 0 0.15212053 -0.065018758 0.98622108 0
0.65317208 0.44517028 2.6707692 0 -0.1826701 0.039346199 -0.98238671 0
0.055903073 0.38465232 2.7883487 0 0.29508182 0.0053232051 0.95545721 0
0.0044325618 0.33017716 2.8031874 0 0.12541953 -0.02488648 0.99179167 0
0.16371247 0.29064301 2.805635 0 0.31628859 -0.37053859 -0.87330562 0
0.21313302 0.277713 2.8612306 0 0.26863718 -0.96288085 -0.02635638 0
0.26622751 0.27979195 2.9068749 0 0.03463633 -0.99837035 -0.045355074 0
0.40266779 0.2751801 3.0279999 0 -0.029722877 -0.98447984 -0.17296284 0
0.31996292 0.27592182 2.9826252 0 -0.02608408 0.99928486 0.027375894 0
0.44031048 0.26708484 3.0917499 0 -0.057290398 -0.9855811 -0.15921012 0
0.49822724 0.2582134 3.1323869 0 -0.16907023 -0.95264858 -0.25273708 0
0.098033838 0.22074001 2.8110785 0 0.082443513 -0.15514354 -0.98444581 0
1.2979474 0.16264774 2.5064213 0 0.40128577 -0.044703204 0.91486144 0
0.10732435 0.1623604 2.864429 0 0.86618602 -0.35046715 -0.3562229 0
0.63881606 0.14161454 3.1643333 0 -0.14437452 -0.97356582 -0.17699084 0
0.096842118 0.12018365 2.918 0 0.80230457 -0.5567112 -0.21536049 0
0.07665582 0.095984817 2.95875 0 0.67049438 -0.70629823 -0.22711253 0
0.75612283 0.093464792 3.1212502 0 0.44785768 0.89283204 0.047690645 0
0.70949626 0.072126366 3.147969 0 -0.15008242 -0.8616389 -0.48482335 0
0.80742276 0.041103665 3.2590001 0 0.88967383 0.010783478 -0.45646933 0
0.7626195 0.052025173 3.1887391 0 0.15703094 -0.72625166 -0.66925311 0
0.78692883 -0.0058626682 3.2302856 0 0.078093201 0.25100577 -0.96483034 0
-0.89964658 -0.057279542 3.1894121 0 0.90217179 0.38043764 -0.20335481 0
-0.87493438 -0.089780807 3.244 0 0.98531526 0.15797837 -0.064781994 0
-0.8510552 -0.097305775 3.1730001 0 0.47873673 0.87759805 -0.02515531 0
-0.76820475 -0.11072925 3.11975 0 -0.22612503 -0.97023743 -0.086642556 0
-0.72139698 -0.12686838 3.0708463 0 0.0079341661 -0.95110905 0.30875349 0
-0.80226314 -0.19936979 3.0549998 0 -0.12953325 -0.047129992 0.99045438 0
-0.90059924 -0.24433482 3.1185 0 0.065649182 -0.13748698 -0.98832566 0
-0.66048384 -0.29108214 3.2106667 0 0.96390516 -0.14196929 -0.22523692 0
-0.4892942 -0.26731482 3.130842 0 -0.36208525 0.017034683 0.93198931 0
-0.52346772 -0.30002764 3.062 0 0.98180437 0.15041704 -0.11590888 0
-0.60720211 -0.32383218 3.1835716 0 0.59157735 0.42582014 0.68462658 0
-0.67412478 -0.31821716 3.243037 0 0.99847895 -0.055131491 0.00055222923 0
-0.54046541 -0.32758108 3.1093538 0 0.82523626 -0.092895143 -0.55709565 0
-0.51761258 -0.32570955 3.0990002 0 0.71437007 -0.16650169 -0.67967099 0
-0.58177906 -0.40725791 3.161 0 0.041384868 -0.096880153 -0.99443525 0
-1.349413 -0.28646848 2.2730002 0 0.21012466 -0.046124533 0.97658598 0
-0.62853497 -0.41388974 3.0999999 0 -0.23258343 0.9053852 0.35522181 0
-0.63809526 -0.39804322 3.0703571 0 0.021774992 -0.95034957 -0.31042153 0
-0.57201904 -0.45870051 3.2192001 0 0.040592637 -0.25474957 -0.96615469 0
-0.50691962 -0.43821719 3.1663229 0 -0.19815721 0.061109014 0.97826356 0
-0.42232403 -0.47393757 3.2163997 0 -0.035963282 -0.02947762 0.99891824 0
-0.22618206 -0.54268336 3.4705553 0 -0.62252283 -0.11251301 0.77447158 0
-0.39174545 -0.51087487 3.2243333 0 0.11666164 -0.076813772 -0.99019682 0
-0.36433697 -0.52871627 3.1984999 0 0.21578462 -0.0021826618 -0.97643858 0
-0.16803676 -0.57524806 3.4030001 0 0.96096098 0.04551382 -0.2729148 0
-0.054539591 -0.60631633 3.4716427 0 -0.054576132 -0.079950735 0.99530369 0
-0.13132548 -0.6117934 3.4082 0 0.049573109 -0.17210031 -0.98383129 0
-0.27053228 -0.58847433 3.2297304 0 0.45970526 0.42481595 -0.77987343 0
-0.15403046 -0.59799856 3.3521669 0 0.94126934 -0.12016552 0.31555083 0
-0.21288902 -0.64917439 3.3575001 0 0.13825722 0.23127295 0.96301502 0
-0.11132021 -0.65933752 3.4779379 0 -0.17618303 0.040210269 -0.98353583 0
-0.051499948 -0.65980959 3.418241 0 -0.19259448 0.096537299 -0.97651833 0
-1.0220215 -0.49499491 2.5728662 0 0.97736353 0.026948797 -0.20984353 0
-0.44980109 -0.61071622 3.0870004 0 0.71104652 -0.017317815 0.7029317 0
-0.19087605 -0.68916184 3.25 0 0.29381782 -0.80122906 -0.52125156 0
-0.28681093 -0.68210059 3.1965714 0 0.31414849 -0.21303648 -0.92516279 0
-0.42606086 -0.75485277 3.483 0 0.01881744 0.99914229 -0.036887519 0
-0.41094458 -0.66781044 3.0879998 0 0.80687827 0.17667872 -0.56367731 0
-0.44794542 -0.66724181 3.1122754 0 0.56762064 0.16113338 0.80736792 0
-0.27835882 -0.74622416 3.3144999 0 -0.25094411 0.94560677 -0.20701422 0
-1.027792 -0.54944432 2.5274835 0 0.97037196 0.035366517 -0.23901366 0
-1.1964897 -0.49777496 2.221 0 0.23162755 -0.068809554 0.97036791 0
-1.0149426 -0.59442472 2.5413127 0 0.98418266 0.012459064 -0.17671835 0
-0.2744709 -0.83735371 3.4859385 0 0.23187178 -0.97078645 -0.061719544 0
-0.90474319 -0.74685526 3.0473335 0 0.00037366155 -0.76073068 0.64906752 0
-1.2255427 -0.53449327 2.2284868 0 0.23523861 -0.077390358 0.96885169 0
-0.34044564 -0.84309691 3.4247499 0 -0.099976219 -0.14827099 -0.9838804 0
-0.37411338 -0.80941945 3.3477502 0 0.45588478 0.89003766 0.0014502537 0
-0.32753533 -0.85610187 3.4639995 0 -0.40213457 -0.85944378 0.31566489 0
-0.29123834 -0.86555809 3.4214449 0 -0.047488779 -0.20266068 -0.9780969 0
-0.70578617 -0.73177534 2.9059546 0 -0.12272542 -0.98360634 0.13212514 0
-1.0418081 -0.60617703 2.4772284 0 0.97945088 0.0056881304 -0.20160268 0
-0.69438976 -0.74516445 2.869 0 -0.24343467 -0.9407112 0.23622465 0
-1.1552309 -0.55073839 2.2078028 0 0.12326813 -0.051374111 0.99104273 0
-1.0124861 -0.66112852 2.5921509 0 0.97787732 -0.0071241315 -0.20905821 0
-0.15364277 -0.84888661 3.1115 0 -0.27220175 -0.45820946 -0.84613842 0
-0.21784775 -0.83578247 3.0982168 0 0.0054895538 0.38852203 -0.92142308 0
-0.66017234 -0.75464255 2.8051362 0 -0.49420133 -0.86837089 -0.04119572 0
-1.2724757 -0.60688198 2.2318034 0 0.26100871 -0.071761601 0.9626655 0
-0.21164843 -0.88173944 3.1086431 0 -0.20292258 -0.70000035 -0.68470573 0
-1.0502726 -0.65913844 2.4171381 0 0.98012382 0.0065042833 -0.1982803 0
-0.62252355 -0.77994561 2.7557919 0 0.086131521 -0.94232231 0.32343474 0
-0.16436978 -0.88007712 3.100548 0 -0.016174853 0.13391457 -0.99086094 0
-0.77513319 -0.90042192 3.0504546 0 -0.39128035 0.56654483 0.72520804 0
-0.51884776 -0.85018033 2.8286667 0 0.015576218 -0.99877739 -0.046916246 0
-1.312886 -0.65998209 2.2386813 0 0.2353265 -0.08561068 0.96813858 0
-1.2584032 -0.66513389 2.2227988 0 0.22742525 -0.069128253 0.97133881 0
-0.55008256 -0.86441392 2.7995555 0 -0.11498176 0.24722695 -0.96211129 0
-1.0626814 -0.71412408 2.3709385 0 0.98591137 0.0098769609 -0.16697663 0
-0.51546955 -0.87321311 2.7697003 0 0.26374835 -0.18865892 -0.94596231 0
-1.0775555 -0.71343797 2.3001802 0 0.98179173 0.044640023 -0.18464096 0
-0.96438694 -0.92115211 2.845 0 0.97990435 0.016194336 -0.19880989 0
-0.94917899 -0.93561727 2.9150181 0 0.98103547 -0.0034845239 -0.19379687 0
-1.0695195 -0.76883763 2.3283706 0 0.99174178 0.022338372 -0.12629107 0
-0.91840214 -1.0463086 3.0246031 0 0.95102197 -0.15833864 -0.26549226 0
-0.95440674 -0.98981392 2.8591814 0 0.96696436 0.017762061 -0.25429222 0
-0.93491399 -1.100409 2.9714136 0 0.97590667 0.13060737 -0.17477953 0
-1.1012692 -0.8255772 2.1974998 0 -0.096014015 -0.015190775 0.99526411 0
-1.0809504 -0.87987053 2.2535141 0 0.97191745 0.038653515 -0.23212609 0
-0.9980185 -1.1329505 2.645 0 0.98015994 -0.0092100631 -0.19799405 0
1.144639 0.79762763 2.2205002 0 0.030480856 -0.99805552 -0.054371409 0
1.0977056 0.79210633 2.2020149 0 0.0053389766 -0.9982999 -0.058042079 0
1.1477168 0.78985703 2.2536001 0 0.02488102 -0.9952364 -0.094262786 0
1.1925861 0.78866345 2.3173635 0 -0.032821149 0.99749178 0.062712938 0
0.88115114 0.77681637 2.4184895 0 0.013824236 -0.99838358 -0.055129621 0
0.93351275 0.77322984 2.4792392 0 0.0075385063 -0.99733829 -0.072522372 0
0.98847651 0.76948762 2.5280733 0 0.0045352406 -0.99604672 -0.08871536 0
1.0431899 0.76632327 2.5778291 0 0.018849269 -0.9974429 -0.068937868 0
0.66231495 0.7645328 2.6440961 0 0.0027374646 -0.99783999 -0.065635495 0
0.71494091 0.75640732 2.6989398 0 0.0055054487 -0.99062967 -0.13646497 0
0.77164334 0.75725704 2.7514822 0 0.023289695 -0.99623013 -0.083565429 0
0.82261401 0.7535814 2.8085003 0 -0.044615455 0.99261159 0.11283481 0
0.64024371 0.73946935 2.79775 0 -0.0010271632 0.99632257 -0.085675716 0
0.43137288 0.74553925 2.851294 0 0.030429097 -0.99947339 -0.011273419 0
0.72042584 0.72617972 2.7484615 0 0.015983298 -0.878932 0.47667915 0
0.52338248 0.74217659 2.927 0 -0.036100626 -0.99896342 0.027731087 0
0.48919696 0.74811381 2.915 0 0.0070342063 -0.99997312 -0.0020896997 0
0.63460606 0.68535811 2.723 0 0.07320556 -0.44728968 0.89138818 0
0.58830839 0.74559289 3.007 0 0.0062849959 -0.99649084 -0.083465353 0
0.55059767 0.74645197 2.9711199 0 0.0065709343 -0.99984235 -0.016500508 0
0.49346602 0.74072802 2.983722 0 0.0055206358 -0.99974525 -0.021888901 0
0.43498743 0.73847145 3.0291667 0 -0.014459381 -0.99424189 -0.10617892 0
0.38590896 0.73459679 3.0863082 0 -0.03060822 -0.99597609 -0.084231265 0
0.33178625 0.73145181 3.1310952 0 -0.049255773 0.99456757 0.091701597 0
0.44342792 0.60416806 2.7129114 0 0.16593967 -0.12585872 0.97807139 0
0.49483731 0.55072206 2.7009573 0 -0.16597895 0.11648338 -0.97922552 0
0.62861794 0.49493244 2.6621177 0 0.25774744 -0.032408811 0.96566868 0
0.54944813 0.49518916 2.69642 0 -0.092106782 0.091985866 -0.99149132 0
1.2728385 0.42971164 2.4988637 0 0.41638434 0.015336272 0.90905935 0
0.60380071 0.43932754 2.6856582 0 -0.15750709 0.092416838 -0.98318392 0
1.2967684 0.37241334 2.5020003 0 0.23436789 -0.01526909 0.97202808 0
0.33239523 0.30376187 2.7256 0 -0.24422775 -0.88647687 -0.39307952 0
0.30751124 0.30235764 2.7130001 0 -0.049654607 -0.077640101 -0.99574417 0
0.28424346 0.33382976 2.7121842 0 0.12272559 -0.028709004 0.99202538 0
0.27703169 0.29457468 2.7572682 0 -0.155102 -0.17017332 -0.9731313 0
0.22123563 0.28780928 2.8059802 0 0.18248752 -0.9773258 -0.10739028 0
1.2980667 0.24463046 2.503 0 -0.020378189 -0.013345812 0.99970335 0
0.16207144 0.28022984 2.8734446 0 -0.25972992 0.93754029 0.23142743 0
0.13202442 0.25760919 2.9030001 0 0.34470996 -0.78961164 -0.50763035 0
0.14034417 0.24444185 2.931 0 0.27564323 -0.89198256 -0.3583127 0
0.11942402 0.21973315 2.8634353 0 0.86588746 -0.46912798 -0.17366016 0
0.094072826 0.17249997 2.8150883 0 -0.49982139 0.37867618 0.77896285 0
0.60255986 0.14575791 3.1686425 0 -0.23279335 -0.26352599 -0.93614179 0
0.54906631 0.11086798 3.1876106 0 -0.15096502 -0.23467879 -0.96027887 0
0.5155682 0.070023902 3.203182 0 -0.24500935 -0.29405111 -0.92385298 0
0.8237502 0.06560982 3.3088331 0 -0.30234304 0.070236407 0.95060796 0
0.43975136 0.055675127 3.2269359 0 -0.15091561 -0.40912169 -0.89991337 0
0.84809101 0.013706608 3.3340001 0 -0.080708891 -0.11474109 0.99011147 0
0.49446949 -0.0024782307 3.2396791 0 -0.1989045 -0.36625749 -0.90900636 0
-0.51383001 -0.035928633 3.1673329 0 0.64041376 -0.33691758 0.69018602 0
-0.86091816 -0.055112153 3.3526075 0 0.96687889 0.029871523 -0.25348154 0
-0.87654448 -0.08614672 3.3143332 0 0.97825795 0.2058721 -0.02506043 0
-0.84483886 -0.095207781 3.3653638 0 0.93859798 -0.28704432 -0.19141412 0
-0.68204319 -0.13363174 3.0539999 0 0.006824798 -0.81271327 0.5826239 0
-0.5207504 -0.15644234 3.091222 0 -0.23733458 -0.17574055 0.95539922 0
-0.52710938 -0.21038717 3.0680909 0 0.94468737 0.32753813 0.016869441 0
-0.49087343 -0.21837354 3.1236415 0 -0.38819754 -0.049876727 0.92022556 0
-0.90103233 -0.25320312 3.1199999 0 0.065630682 -0.13756575 -0.98831588 0
-0.6958015 -0.32183826 3.2297778 0 0.94732386 0.02088323 -0.31959572 0
-0.65099043 -0.32622713 3.2989655 0 0.99018139 -0.065936685 -0.12326158 0
-0.87439817 -0.31715268 3.0806668 0 0.37270889 0.034129314 0.92732048 0
-1.3495892 -0.21950547 2.2747335 0 0.2169148 -0.045358084 0.97513622 0
-0.83048677 -0.33440951 3.147583 0 -0.37587032 0.92301363 0.082263298 0
-0.78027076 -0.35532475 3.1990001 0 -0.47902566 0.87565404 -0.061355621 0
-0.82720512 -0.36692622 3.193923 0 0.69999599 -0.71404368 0.012138098 0
-0.87586534 -0.46279958 3.1800001 0 0.97782731 -0.068058237 -0.1980449 0
-0.3135424 -0.5098837 3.4633331 0 0.94719046 0.32042611 -0.012539636 0
-0.25989914 -0.5235666 3.4825001 0 -0.60735017 0.11638413 0.78586292 0
-0.26033998 -0.5147891 3.4029999 0 0.99669689 0.0084234476 -0.080773726 0
-0.26477608 -0.63428211 3.3785 0 0.38564408 0.25205582 0.88755089 0
-0.21751136 -0.59746134 3.2282615 0 0.10955331 0.26825854 -0.95709741 0
-0.045104455 -0.69220114 3.415 0 0.16053201 -0.61839783 -0.76929432 0
-0.20590562 -0.66363591 3.2001667 0 0.063057624 0.1075144 -0.99220186 0
-0.16419467 -0.66481555 3.228163 0 0.23671882 -0.96794868 -0.083902717 0
-0.10313233 -0.72871745 3.4685998 0 -0.15045767 0.33465916 0.93025041 0
-0.16671756 -0.70142615 3.302 0 0.31630418 -0.88943154 -0.32994452 0
-0.19213223 -0.74810863 3.3789999 0 0.27025038 -0.12454868 0.95470011 0
-0.21761678 -0.73523945 3.3434665 0 0.068889536 -0.86433595 0.49817425 0
-0.33261895 -0.70582092 3.237571 0 -0.15376379 -0.37342942 -0.91482627 0
-0.28999469 -0.70249695 3.1958079 0 0.75815016 -0.087331206 -0.64620554 0
-0.054815017 -0.7701388 3.4657116 0 -0.11139748 -0.28841114 -0.95100456 0
-1.0831491 -0.49389693 2.2497308 0 -0.21701436 -0.0088527519 0.97612834 0
-0.43379939 -0.70743161 3.1225374 0 0.86411846 0.38491365 -0.32425448 0
-0.40985289 -0.73377544 3.0761664 0 0.95702589 0.2509062 -0.14542243 0
-0.23642649 -0.83240241 3.4862857 0 -0.10341576 0.025756892 0.99430472 0
-0.42812127 -0.75681096 3.0874736 0 -0.50599414 -0.14178351 0.85080397 0
-0.54363388 -0.72220647 3.0205665 0 0.019315967 -0.98242569 0.18565202 0
-0.37535232 -0.80222589 3.2160001 0 0.92186898 -0.38745114 0.0062628537 0
-0.4891445 -0.72634119 2.9763513 0 0.034135867 -0.95140624 0.30604082 0
-0.3914547 -0.77686423 3.1172004 0 0.81556523 0.5153628 -0.26316291 0
-0.65992409 -0.72936255 2.9022505 0 -0.058485668 -0.9221319 0.3824293 0
-0.62700719 -0.73976892 2.8758335 0 0.32259873 0.91215193 -0.25280228 0
-0.14804573 -0.88213801 3.4801259 0 0.091982231 0.10123725 0.99060106 0
-1.1046877 -0.55147833 2.204344 0 0.82919216 0.0055844411 -0.55893594 0
-0.6612317 -0.74499899 2.8459997 0 -0.56241751 -0.20442484 0.80118477 0
-0.54374754 -0.75720227 2.9576659 0 0.03070863 -0.99912661 0.028336285 0
-0.59068912 -0.75424182 2.900964 0 -0.22082594 -0.90447289 0.36491737 0
-0.32768676 -0.82257676 3.1160629 0 -0.38668978 -0.8874929 0.25065398 0
-1.0702108 -0.60822147 2.3201017 0 0.99017137 0.0011584776 0.13985452 0
-0.57923639 -0.81990337 2.9949999 0 -0.12167783 -0.87842888 -0.46212253 0
-0.6974948 -0.75494391 2.8024585 0 -0.49939847 -0.85728717 -0.12513982 0
-0.26557252 -0.83823466 3.1001337 0 0.035692781 0.45541927 -0.88956141 0
-0.29153618 -0.86195332 3.1131668 0 -0.23796192 -0.69472468 -0.67877227 0
-1.0089332 -0.71838117 2.5921645 0 0.98061556 0.0058917408 -0.19585316 0
-0.54245698 -0.82254517 2.9100888 0 -0.37302858 -0.92718416 0.034341682 0
-0.63978744 -0.86326331 2.99 0 0.024572674 0.9734962 -0.22737919 0
-1.0625453 -0.65920997 2.3673863 0 0.98139286 0.00068273488 -0.19200933 0
-0.49370226 -0.86102635 2.9110558 0 -0.2223829 -0.95539653 0.19432768 0
-0.51359761 -0.84719402 2.8655 0 -0.24560927 0.2163039 -0.94492793 0
-1.0808215 -0.65968782 2.3044398 0 0.99254817 0.0018881336 -0.12183813 0
-0.56634319 -0.85421622 2.8525 0 -0.36675736 -0.77471125 0.51508403 0
-1.0488495 -0.7160148 2.4181933 0 0.98282796 0.021557514 -0.18326077 0
-1.0379298 -0.76931232 2.4812562 0 0.98187739 0.0070847711 -0.18938485 0
-1.3103471 -0.71088809 2.2341425 0 0.23901317 -0.085605405 0.96723551 0
-1.2608209 -0.71747553 2.2193437 0 0.22750303 -0.057814192 0.97205973 0
-1.029953 -0.8275187 2.525418 0 0.98221648 0.011725262 -0.18738541 0
-0.97280061 -0.93567491 2.8115261 0 0.98592192 0.022462549 -0.16569069 0
-1.0213977 -0.87839884 2.561862 0 0.97767311 0.0077339597 -0.2099891 0
-0.96071011 -1.0054641 2.8315001 0 0.9624126 0.030920366 -0.26982564 0
-1.3033389 -0.77610749 2.2232647 0 0.24635862 -0.063112311 0.96712172 0
-0.9808588 -0.98974264 2.7393553 0 0.97393948 0.0031573139 -0.22678626 0
-1.1550363 -0.82548922 2.1918514 0 -0.13989548 -0.099758416 0.98512822 0
-0.99369609 -1.0456405 2.7001491 0 0.97999841 0.0072906483 -0.19887216 0
-0.93452322 -1.1578594 2.9761496 0 0.96900761 0.15812662 -0.18979008 0
-0.91322803 -1.2092208 3.0221632 0 0.99137026 0.020631265 -0.1294581 0
-1.2112281 -0.87976986 2.1980581 0 -0.016746707 0.04019006 -0.99905181 0
-1.0016042 -1.0990183 2.6404817 0 0.98262566 0.045550514 -0.17992237 0
0.27454564 0.8092559 1.9393154 0 0.016831663 -0.99742073 -0.069776319 0
0.10964094 0.80099082 1.9767934 0 0.017926764 -0.99968708 -0.017449033 0
0.17296986 0.79747862 2.006 0 0.014193515 -0.99830139 -0.056505699 0
0.16767175 0.79898757 2.0324261 0 0.00027692737 -0.9985671 -0.053513687 0
0.116244 0.79458392 2.044121 0 -0.0040494348 -0.99997705 -0.0054325326 0
0.054977469 0.79130453 2.0892129 0 0.037445553 -0.99754304 -0.05920925 0
0.0025341541 0.78891182 2.149457 0 0.026693098 -0.99744761 -0.066224866 0
0.82502967 0.78917116 2.2011046 0 0.0084331827 -0.99692106 -0.077957727 0
0.77541631 0.78797776 2.2540834 0 0.0092176814 -0.99828655 -0.057784937 0
0.71625847 0.78440392 2.3077917 0 0.0086805169 0.99789679 0.064240269 0
0.66090727 0.78029901 2.3640635 0 0.017834205 0.99794811 0.061494324 0
0.60519987 0.77473038 2.4193714 0 -0.011068041 -0.99908024 -0.041427929 0
0.55134374 0.7734139 2.4767799 0 -0.016066417 -0.99837995 -0.054582927 0
0.49693438 0.77168566 2.5312624 0 -0.00069912162 -0.99914396 -0.04136277 0
0.44109276 0.76427931 2.5825891 0 -0.00014174357 -0.99925977 -0.038470875 0
1.2645459 0.76107502 2.6387506 0 0.055709451 0.99725902 0.048693288 0
1.2102358 0.75854278 2.6968822 0 0.043953404 0.99662203 0.069374509 0
1.1565678 0.75471145 2.7501841 0 0.0067575211 0.99843574 0.05550234 0
1.0968417 0.74980986 2.8060555 0 -0.016209794 0.99767888 0.066138297 0
1.0434337 0.74809146 2.8538527 0 0.0096815536 -0.99836433 -0.056346741 0
0.89598674 0.74144953 2.8649998 0 0.012029018 -0.9981851 -0.059008133 0
1.0000396 0.74367827 2.90625 0 0.033186484 -0.9959622 -0.083414815 0
0.95274287 0.73905224 2.9162858 0 -0.0032758643 -0.99999106 -0.0026930042 0
0.93116045 0.74551791 2.9724708 0 -0.0030345968 -0.99986565 -0.016108837 0
0.88525832 0.74450207 3.0058572 0 0.0071308133 -0.99942243 -0.033225123 0
1.0451429 0.73869908 3.0285316 0 0.0080082258 -0.99702591 -0.076649927 0
0.79479527 0.36090794 1.7372501 0 0.10926281 0.98915172 0.098186225 0
0.80200469 0.35598901 1.753 0 0.014622182 0.99646026 0.08278358 0
0.8378371 0.35954732 1.8027499 0 0.041969549 0.997715 0.05294814 0
1.377038 0.60421914 3.2499185 0 -0.10392935 -0.047768608 -0.99343687 0
1.3219246 0.5504759 3.2544267 0 0.12980506 0.046470836 0.99044997 0
1.4335574 0.49261555 3.2035728 0 0.9362058 0.09042123 0.33962169 0
1.4282809 0.44755098 3.2324622 0 0.10435829 -0.089878067 0.99047029 0
1.4652874 0.44345158 3.1889997 0 0.79873091 0.047366709 0.59982103 0
0.99972945 0.390522 3.3104565 0 0.15058202 -0.0079981089 0.98856515 0
1.1639608 0.38341054 3.2661786 0 0.10399826 -0.024849985 0.99426699 0
1.0266951 0.36230519 3.3348331 0 0.27833298 0.039697669 0.95966393 0
1.114758 0.32343391 3.2594645 0 0.15711522 -0.055877704 0.98599821 0
1.0535698 0.33423874 3.3036771 0 -0.13504091 0.025590029 -0.99050951 0
1.3427508 0.27997202 2.8533125 0 0.93554956 0.014628597 -0.35289249 0
0.98885787 0.32787898 3.333457 0 -0.0013739626 -0.029644724 -0.99955964 0
1.3729675 0.27088779 2.9291427 0 0.92944825 0.081655413 -0.35980329 0
0.9366166 0.2955924 3.3287215 0 0.12434672 -0.033495422 0.99167335 0
0.90086538 0.29613152 3.3269999 0 0.072788425 0.001745742 0.99734592 0
1.2646627 0.2780799 3.2493098 0 0.1373006 -0.046241116 0.98944956 0
0.94824427 0.24523824 3.3258333 0 0.11403598 0.093291037 0.98908681 0
1.2095802 0.22233687 3.2541516 0 0.16896705 -0.038205009 0.98488104 0
1.5306727 0.14862163 2.9533126 0 0.75811362 0.18657759 0.62486207 0
1.0883657 0.052331667 3.2748923 0 0.26541913 -0.12117071 0.95648861 0
-0.91390508 -0.059299469 3.1294212 0 0.62074417 0.69714433 -0.35870129 0
-0.92095929 -0.092523761 3.083174 0 0.903193 0.29690829 -0.30998051 0
-1.0087979 -0.49603581 2.6491807 0 0.97889835 0.0077067255 -0.20420267 0
-0.99384218 -0.54714757 2.6862159 0 0.97780716 0.0010171001 -0.20950449 0
-0.98350209 -0.6035437 2.7480555 0 0.98086882 0.006551343 -0.19456007 0
-0.97160327 -0.65938556 2.8091803 0 0.98392832 -0.0058288113 -0.17846859 0
-0.96651793 -0.69609213 2.8329999 0 0.9952969 0.0066677262 -0.0966428 0
-0.94862103 -0.7153073 2.9189372 0 0.98254639 0.0064140847 -0.18590747 0
-0.96515465 -0.77127337 2.8965001 0 0.98425394 -0.0051494078 -0.17668526 0
-0.95834285 -0.7784403 2.8614285 0 0.99501032 -0.0070796506 0.09952151 0
-0.92075157 -0.82294512 3.0210919 0 0.962668 -0.045286197 -0.26687014 0
-0.1268297 -0.91130871 3.0962498 0 0.0050987834 0.093798622 -0.99557823 0
-0.26068184 -1.0257213 3.4889998 0 0.11423583 0.077830605 0.99040025 0
-0.81918544 -0.91804481 3.0320802 0 0.84993076 -0.11634513 -0.51388866 0
-0.93573505 -0.87927675 2.9704504 0 0.96510655 0.0053311121 -0.26180342 0
-0.61004537 -0.91674078 2.808857 0 0.85132903 -0.27663901 0.44576877 0
-0.1652482 -1.152879 3.4710121 0 -0.020708147 -0.059369799 0.99802125 0
-0.21188743 -1.2106453 3.4839714 0 -0.011180051 0.0056519243 0.99992156 0
-0.42528489 -1.143882 3.1947691 0 0.31373012 0.83902067 0.4445422 0
-0.39220083 -1.1834844 3.2062001 0 0.67254215 0.59465176 0.44054097 0
-0.42368016 -1.1914306 3.2462499 0 0.76993871 0.51978171 0.37016413 0
-0.051581338 -1.2588675 3.448405 0 -0.23638836 -0.063472554 -0.96958333 0
-0.08595138 -1.2786741 3.4293334 0 0.15586157 0.0085918447 -0.98774159 0
-0.2149241 -1.2993104 3.3795998 0 -0.65619481 -0.29164481 0.69595391 0
-0.11448244 -1.3178253 3.4674335 0 -0.036000647 -0.031836107 0.99884456 0
-0.052946933 -1.3141394 3.4304626 0 -0.021785514 0.046314869 0.99868929 0
-0.85620618 -1.3661077 3.4315 0 0.99065411 0.11010567 -0.080507323 0
-0.82965964 -1.3788668 3.4602356 0 0.9747315 -0.007543087 -0.22325277 0
-1.0593222 -0.93392652 2.3632452 0 0.98626876 0.0055885101 -0.16505355 0
-1.0745634 -0.9342339 2.3016875 0 0.97741747 0.031242415 -0.20899568 0
-1.073143 -0.98542422 2.3380001 0 0.98808819 -0.023409186 -0.15209766 0
-0.83454317 -1.4259437 3.4139998 0 0.98679823 0.0078464635 -0.16176485 0
-1.0707188 -0.97772163 2.314486 0 0.98837483 -0.031417456 -0.14875591 0
0.22105809 0.80529445 1.9328734 0 0.021366891 -0.99831712 -0.053910911 0
0.11007768 0.79675788 1.9770832 0 0.015883369 -0.99966246 -0.020560689 0
0.16607776 0.80274123 1.9792823 0 0.019782208 -0.99804556 -0.059277322 0
0.10472079 0.79930651 2.0307045 0 0.0041819075 -0.99909031 -0.042440102 0
0.06413614 0.79802299 2.0656667 0 0.0019727221 -0.9985705 -0.053414408 0
0.15641327 0.79462385 2.0334876 0 0.0032605787 -0.99852353 -0.054223232 0
0.0018194309 0.79197061 2.090308 0 0.035864983 -0.99914306 -0.020662174 0
0.056979995 0.78986782 2.1463747 0 0.021528143 -0.99790478 -0.061012324 0
0.77073669 0.78892553 2.1996996 0 0.011096933 -0.99711233 -0.075126596 0
0.82603091 0.78386676 2.2517183 0 0.0043114335 -0.99714613 -0.075372435 0
0.6615119 0.78299642 2.307848 0 0.017486727 0.99790382 0.062307864 0
0.71687669 0.7781136 2.3621023 0 0.015546469 0.9973647 0.070867039 0
0.54962862 0.77627259 2.4140294 0 -0.007876426 -0.99795032 -0.063506953 0
0.60580426 0.77154988 2.4796517 0 -0.0062479065 -0.99951655 -0.030457292 0
0.43875417 0.77073282 2.5352883 0 0.0039847009 -0.99883664 -0.048058573 0
0.49010912 0.76580852 2.5751874 0 0.0035566534 -0.99841297 -0.056205042 0
1.211514 0.76388311 2.6378539 0 0.048255518 0.99702525 0.060101572 0
1.2658764 0.76127791 2.699605 0 0.076917343 0.99675542 -0.023713052 0
1.1011987 0.75704414 2.7466691 0 -0.0024134144 0.99640381 0.084697738 0
1.1559914 0.75123298 2.806483 0 0.0076782107 0.99837744 0.056424256 0
0.98972613 0.74586391 2.8592503 0 -0.022709478 -0.99786973 -0.061159484 0
0.92810899 0.74205363 2.8748746 0 -0.015271359 -0.9996264 -0.022672279 0
1.0458739 0.74522203 2.9143939 0 0.0037642743 -0.99887645 -0.047242291 0
0.88184059 0.74466383 2.9653914 0 -0.02211274 0.9982872 0.054165348 0
1.0465597 0.74077344 2.9734738 0 0.00010967068 -0.99942225 -0.033988073 0
0.93893868 0.74611688 3.0167336 0 -0.0023727352 -0.9995172 -0.030979771 0
0.9926278 0.74013746 3.02984 0 0.014348163 -0.99918813 -0.037645925 0
0.79530859 0.35609651 1.7455 0 0.067746393 0.99321443 0.094527945 0
0.82954109 0.36078238 1.7558358 0 0.0026456846 0.99758947 0.069342896 0
1.4336634 0.62850106 3.1529999 0 0.89893389 0.051682163 0.43502513 0
0.8486402 0.35679221 1.83 0 0.055169478 0.99694824 0.055233538 0
1.3908424 0.6159339 3.207834 0 0.17435622 0.11789851 0.97759908 0
1.3195558 0.60424697 3.2499759 0 0.12472717 0.068912007 0.98979509 0
1.3764751 0.54982084 3.239418 0 0.078398764 0.016610928 0.99678373 0
1.4653112 0.49953023 3.1889653 0 0.72165054 -0.03249203 0.69149458 0
1.4202816 0.49642286 3.2278004 0 0.10072099 -0.05016702 0.99364918 0
1.4419975 0.4328306 3.2097018 0 0.57513702 -0.010456421 0.8179903 0
1.0464119 0.38659579 3.3008928 0 0.21074724 -0.0011048019 0.97754008 0
0.98291057 0.37973782 3.3367777 0 0.082853727 -0.0070167379 0.99653703 0
1.1561304 0.32710904 3.2656274 0 0.16144286 -0.070439406 0.98436505 0
1.029074 0.32449239 3.3307507 0 0.40047777 -0.038039047 0.91551656 0
1.3491933 0.26852354 2.8621428 0 0.93525922 0.029728115 -0.35271293 0
0.90632355 0.293109 3.3280001 0 0.082970493 -0.011227384 0.99648875 0
1.2125453 0.27230534 3.2619731 0 0.23681895 -0.11352701 0.96489823 0
0.93690968 0.27081108 3.3247335 0 0.16322859 0.00061110407 0.98658806 0
1.2667506 0.22175297 3.2551413 0 0.13420175 -0.10386824 0.98549551 0
0.95434153 0.22453064 3.342133 0 0.043479268 0.079729833 0.99586785 0
1.5258613 0.10967195 2.9543729 0 0.74888551 0.14885427 0.64576536 0
1.1303747 0.064890422 3.2737999 0 -0.2846871 -0.0057387655 -0.95860338 0
1.0901401 0.0033143763 3.2766974 0 0.28607342 -0.17387964 0.94229931 0
1.0522629 -0.009628254 3.2661467 0 -0.26710647 0.18648081 -0.94545174 0
-0.92525548 -0.066700332 3.0910356 0 0.60515344 0.73372388 -0.30893147 0
-0.91141737 -0.088777103 3.1236 0 -0.593997 -0.74251938 0.30956841 0
-0.99405122 -0.49430296 2.689388 0 0.9804793 0.0077597434 -0.19646968 0
-1.0062976 -0.55000275 2.6451972 0 0.98079479 0.010354496 -0.19476739 0
-0.9716059 -0.60920656 2.8060272 0 0.98194879 -0.0088569801 -0.18893948 0
-0.9806602 -0.66046625 2.7461946 0 0.98357677 0.0038887502 -0.18044858 0
-0.95790958 -0.71295363 2.8577502 0 0.99890435 0.012503637 -0.045096938 0
-0.96505004 -0.76313043 2.8760002 0 0.99065769 0.0097491276 -0.13602327 0
-0.94807118 -0.7716437 2.914573 0 0.97100425 0.072462603 -0.22781597 0
